# .PCD v0.7 - Point Cloud Data file format
VERSION 0.7
FIELDS x y z rgb
SIZE 4 4 4 4
TYPE F F F U
COUNT 1 1 1 1
WIDTH 232
HEIGHT 1
VIEWPOINT 0 0 0 1 0 0 0
POINTS 232
DATA ascii
1.02029 -0.12721415 0.026655316 4285493103
1.0755732 -0.14553733 0.030385051 4285361517
1.1293397 -0.14392306 0.030154536 4287466893
1.178941 -0.12712541 0.026278811 4289111718
0.97093147 -0.076797001 0.02834711 4285427310
1.2291176 -0.080415167 0.023811335 4290295992
0.95380569 -0.026806522 0.032099962 4284966759
1.2475004 -0.02634717 0.026921535 4291414473
0.95579457 0.030476475 0.030312745 4285098345
1.2470411 0.025909528 0.027060192 4290822336
0.97059828 0.07575053 0.027332917 4285493103
1.2306836 0.075576447 0.024506159 4289506476
1.0225708 0.12953657 0.028630447 4285427567
1.0737301 0.14581035 0.028680058 4284900966
1.128389 0.14448681 0.02732238 4285229931
1.17803 0.12849446 0.024138553 4287335307
0.99340081 -0.10553236 0.077107467 4284900966
1.0210673 -0.12391797 0.074999578 4284835173
1.075526 -0.14549944 0.075055443 4285295724
1.1295964 -0.14397471 0.075087763 4287466893
1.1783754 -0.1236837 0.074590243 4289374890
1.2092975 -0.10184763 0.077085882 4290493371
0.97336388 -0.075613886 0.075670063 4284900966
1.2287959 -0.076963104 0.073785134 4291019715
0.94897461 -0.013411968 0.075653806 4284900709
0.95446736 -0.027038509 0.075787902 4284835429
1.2475184 -0.026239974 0.071461834 4291414473
1.25049 -0.0064988346 0.071103908 4291348680
0.94878078 0.015035188 0.074976452 4284835429
0.95589423 0.030149324 0.073899657 4284835173
1.2469801 0.025454912 0.071304373 4290953922
1.2503103 0.0066252733 0.071770348 4291217094
0.97238541 0.075142115 0.075335421 4284900966
1.230085 0.071732521 0.071422487 4289769648
0.9958061 0.10918708 0.075194381 4284900966
1.0232815 0.12830281 0.074707754 4284835430
1.0761131 0.14611951 0.074492767 4284835173
1.126242 0.14496341 0.071416125 4285098345
1.1776352 0.12564737 0.071582958 4287072135
1.206712 0.10380807 0.071388528 4288519581
1.0812542 0.15401563 0.074975371 4284769892
1.1007273 0.15077603 0.066677734 4281754424
0.99395478 -0.10610387 0.12420588 4284900966
1.0216113 -0.12446836 0.12637818 4284900710
1.0757245 -0.14557007 0.12546678 4285295724
1.1295509 -0.14399776 0.12492977 4287466893
1.1778961 -0.12383799 0.12573099 4289374890
1.2067035 -0.10503978 0.1266433 4290427578
0.97336912 -0.075626001 0.12668131 4284900966
1.2298054 -0.07486771 0.12581162 4291085508
0.94894308 -0.013486016 0.12588318 4284835174
0.95440578 -0.027193151 0.12686844 4284900966
1.2475138 -0.026320191 0.12160923 4291414473
1.2505265 -0.0066235564 0.12115757 4291348680
0.94879669 0.015252983 0.12596136 4284769892
0.95548755 0.029058807 0.12582843 4284835173
1.2470061 0.025705731 0.121415 4290953922
1.2503507 0.006536691 0.12124938 4291217094
0.97229558 0.074835226 0.12500395 4284900966
1.2301863 0.071577542 0.12069148 4289835441
0.99587417 0.10774858 0.12464452 4284900966
1.0263895 0.13043492 0.12576559 4284835430
1.0769629 0.14625339 0.1261557 4284769892
1.1248982 0.14528361 0.12492 4285032552
1.1749716 0.12732567 0.12195142 4286940549
1.2067826 0.10382799 0.12121556 4288585374
1.0814149 0.15438364 0.12775509 4284900966
0.99263841 -0.10480236 0.17484258 4284900966
1.0240498 -0.12576564 0.17543003 4284900710
1.0755168 -0.1456084 0.17511974 4285295724
1.1290337 -0.14413761 0.17443365 4287466893
1.1782159 -0.12358213 0.17473538 4289374890
1.2069447 -0.1049381 0.17562605 4290361785
0.97336733 -0.075592309 0.17587079 4284900966
1.2301971 -0.074507684 0.17290772 4291085508
0.94893277 -0.013564194 0.17569968 4284835173
0.95425314 -0.027103286 0.1762943 4284900966
1.247341 -0.027676547 0.1700692 4291414473
1.2505544 -0.006908454 0.17102799 4291348680
0.94900459 0.016759761 0.17502365 4284704356
0.9555946 0.028509192 0.17368978 4284835173
1.247004 0.026281295 0.17156774 4290888129
1.250468 0.0057185078 0.17172681 4291217094
0.97208506 0.074502297 0.17404437 4284900966
1.229871 0.07203269 0.17146371 4289769648
0.99348873 0.10391483 0.17357017 4284900966
1.0261146 0.12989445 0.17473012 4284900709
1.0759144 0.14625745 0.17256071 4284835429
1.125168 0.14523987 0.17207955 4285032552
1.1745431 0.1276854 0.17133178 4286940549
1.206809 0.10385694 0.17143568 4288585374
1.0809691 0.15430087 0.17448181 4284900966
0.99369067 -0.10573764 0.22445229 4284900966
1.0240926 -0.12583348 0.22485735 4284900710
1.0714089 -0.14466833 0.22460754 4285229931
1.1297476 -0.1442354 0.22504264 4287466893
1.1785446 -0.12333492 0.22456326 4289440683
1.2076014 -0.1045722 0.22421688 4290427578
0.97327858 -0.075365983 0.22586805 4284900966
1.2288184 -0.076018117 0.22334859 4291019715
0.94890535 -0.013761881 0.22506048 4284900965
0.95426583 -0.027135994 0.22582962 4284900966
1.2469056 -0.030834803 0.22118323 4291414473
1.2505757 -0.0066089067 0.21950452 4291348680
0.94897109 0.016425816 0.22500187 4284769892
0.95557582 0.028780868 0.22489402 4284900965
1.247147 0.025823148 0.22119467 4290888129
1.2505131 0.005606371 0.22127597 4291282887
0.97215849 0.074644394 0.2239839 4284900966
1.2298717 0.072124749 0.22111136 4289769648
0.99445629 0.1048189 0.22416858 4284900966
1.0266287 0.13051997 0.22511691 4284900710
1.0762726 0.14683023 0.22304748 4284835173
1.1248069 0.14531757 0.22211526 4285032552
1.1766862 0.1264912 0.22172336 4287006342
1.2070165 0.10370592 0.22107096 4288585374
1.0819702 0.1544302 0.22600596 4284900966
1.1010281 0.15083399 0.24523142 4281754678
0.99356055 -0.10569418 0.27478567 4284900966
1.0238318 -0.12570629 0.27432412 4284900710
1.0710198 -0.14458925 0.27491781 4285229931
1.1295588 -0.14421228 0.27542961 4287466893
1.1798201 -0.12227723 0.27492371 4289440683
1.2087438 -0.10325496 0.27672291 4290427578
0.97292781 -0.074809499 0.27529752 4284900966
1.2303182 -0.073613934 0.2726151 4291085508
0.94889253 -0.013450941 0.27463019 4284835429
0.95422554 -0.02715653 0.27611703 4284900966
1.2469633 -0.030742083 0.27117097 4291414473
1.250571 -0.0071433224 0.27122474 4291348680
0.94889486 0.016116796 0.27519199 4284769892
0.95540106 0.027965175 0.27582017 4284835429
1.2471826 0.025601577 0.27126911 4290953922
1.2505547 0.005505112 0.27123863 4291282887
0.97210628 0.074698426 0.27484974 4284900966
1.2298131 0.072247013 0.27156159 4289769648
0.99417657 0.10452078 0.27421457 4284900966
1.0273964 0.13095713 0.27457902 4284900966
1.0753447 0.14644174 0.27438465 4284835429
1.124077 0.14551502 0.27186057 4285032552
1.1762459 0.12679151 0.2712588 4287006342
1.2064499 0.10430501 0.2742098 4288519581
1.0814629 0.15386143 0.27539164 4284704354
0.99333358 -0.10552179 0.32596138 4284900966
1.0215977 -0.12421289 0.32474503 4284900710
1.070943 -0.14433624 0.32595292 4285229931
1.1282125 -0.14419475 0.3271578 4287401100
1.1792072 -0.12230247 0.32541588 4289440683
1.2085251 -0.10398384 0.32841915 4290166198
0.97343743 -0.075068317 0.32453337 4284900966
1.2310033 -0.072656937 0.32250232 4291085508
0.94881219 -0.013881068 0.3251363 4284835429
0.95417434 -0.026839145 0.32595876 4284900966
1.2470177 -0.030729631 0.32242864 4291414473
1.2504971 -0.0078987181 0.32141989 4291348680
0.94885749 0.015416036 0.32591021 4284769892
0.95539451 0.028123014 0.32489684 4284835429
1.2471149 0.025794815 0.31725627 4290953922
1.2505364 0.005480398 0.31679595 4291282887
0.97189713 0.074187934 0.32398772 4284900966
1.2290212 0.073629178 0.31776088 4289703855
0.99569935 0.10627232 0.32095343 4284900966
1.0277721 0.13108151 0.32575145 4284835173
1.0746391 0.14584756 0.32406959 4284835429
1.1242433 0.14548437 0.32249099 4285032552
1.1751542 0.12744065 0.31973967 4286940549
1.2074291 0.10344653 0.31703463 4288585374
1.0818468 0.15440512 0.32839596 4284769893
0.99328882 -0.1055192 0.37565807 4284900966
1.020698 -0.12351879 0.37534744 4284900710
1.0707915 -0.14427556 0.37615615 4285229931
1.1283102 -0.14407487 0.37593454 4287466893
1.1786425 -0.12258461 0.37549895 4289440683
1.2035089 -0.10564466 0.37622753 4290230967
0.97331178 -0.074943595 0.3748453 4284900966
1.2204734 -0.085648827 0.37239999 4290295992
0.94876581 -0.014014187 0.37519264 4284835429
0.95437676 -0.02650536 0.37508571 4284900966
0.94875932 0.015169331 0.37525469 4284769892
0.95531762 0.028652847 0.37354374 4284835173
0.97212452 0.074503683 0.3735978 4284900966
0.99414569 0.10444856 0.37343246 4284900966
1.0245225 0.12943734 0.37445283 4284900966
1.0694202 0.148164 0.36816972 4284900966
1.1099403 0.14796889 0.3517181 4284900966
1.0798602 0.15421011 0.37438428 4284835429
1.1000495 0.15666874 0.390387 4284639075
0.99619848 -0.10787448 0.42403826 4284900966
1.019956 -0.12239669 0.4253774 4284900710
1.0701268 -0.14359607 0.42427331 4285229931
1.1267427 -0.14370532 0.42242607 4287401100
1.1754309 -0.12355825 0.42158225 4289309097
1.2031642 -0.10545572 0.41695943 4290361785
0.9730711 -0.073943675 0.42333537 4284900966
1.218627 -0.086587191 0.41516879 4288585374
0.94854957 -0.012996172 0.42215568 4284900966
0.95452935 -0.026280327 0.42376572 4284900966
0.9486177 0.01434977 0.4229371 4284835429
0.95544165 0.030241732 0.42494419 4284835173
0.97191584 0.07450708 0.42417496 4284900966
0.99409592 0.10448933 0.4239645 4284900966
1.0233446 0.12903799 0.42498386 4284900966
1.0588827 0.14986268 0.42272091 4284900966
1.0750003 0.15356208 0.42632368 4284900966
1.1003221 0.15669835 0.43107873 4284639075
0.9957431 -0.10667185 0.47185409 4284900966
1.0204259 -0.12261986 0.47484976 4284900710
1.0697796 -0.14349936 0.47251374 4285229931
1.1217644 -0.14420466 0.47371602 4287269514
1.1719639 -0.1248824 0.47336403 4289243304
0.97154754 -0.071616523 0.47428349 4284900966
0.94824243 -0.010046861 0.47432917 4284900966
0.95470315 -0.02629758 0.4737311 4284900966
0.94845355 0.01399124 0.47365606 4284900966
0.95532399 0.029650254 0.47447625 4284900710
0.97178835 0.073929518 0.4742327 4284835430
0.99403286 0.104574 0.47420555 4284835429
1.0222635 0.12837264 0.47518909 4284900709
1.0590775 0.1499328 0.47136605 4284900709
1.0758781 0.15373608 0.47593114 4284900710
0.9949798 -0.10513879 0.50966585 4284115548
1.0210552 -0.12230127 0.50762171 4284245340
1.0682383 -0.14334853 0.50728917 4284902245
0.9713071 -0.071255304 0.50806665 4284442720
0.94958299 -0.0040531158 0.50771606 4284377696
0.95405465 -0.025314065 0.50850159 4284508512
0.94938028 0.0055969581 0.507658 4284443231
0.95420808 0.028134797 0.50769031 4284508256
0.97163934 0.073424079 0.50512499 4284835429
0.99406403 0.10499052 0.5043723 4284900966
1.0276024 0.13334414 0.50662231 4284442719
1.0592115 0.14998107 0.50487155 4284769891
